-2.12511 1.70813 -0.181927 
3.04848 0.460826 -3.17137 
1.31885 1.64256 1.88145 
3.56633 3.15567 3.21477 
-3.63259 0.364147 1.37109 
-0.530019 0.794024 0.164148 
-1.60772 3.05406 3.65959 
-3.50725 -3.18342 -0.128177 
0.523202 0.592664 2.69599 
2.95099 0.710458 3.23933 
-2.84088 0.528532 0.686714 
-2.38005 -2.64284 -1.4384 
-0.737494 -0.761385 1.61009 
2.41818 2.45338 2.92893 
2.78232 -3.67552 -1.00473 
3.57635 -3.51138 2.86268 
-0.869592 0.148212 2.33266 
-3.46035 2.71602 -2.78231 
-2.74989 -1.54465 -2.25911 
-2.22136 -0.857935 0.691883 
2.63581 -2.29633 -2.14899 
1.87442 -0.686246 2.97096 
-3.1722 2.24269 2.23346 
0.65228 1.23795 -2.84836 
-2.71088 -1.06671 3.51031 
-2.69085 -0.341775 2.64072 
0.025176 -3.12409 -1.41229 
-1.51947 2.1168 2.62736 
-2.37741 2.80868 -0.122527 
2.14001 3.63065 0.291924 
-3.1173 -1.63589 2.16635 
-1.87935 3.01575 -1.00585 
2.22128 2.94971 -0.353569 
1.15457 -1.03999 -3.21266 
-2.31129 0.188436 -1.1144 
-0.194492 2.8158 -1.08922 
2.61419 2.69327 -2.60869 
-0.595472 0.64131 -2.15984 
3.73409 1.44824 2.48353 
-3.20517 -0.187973 -1.64061 
-3.01673 -1.30237 -0.827817 
-0.200934 -2.39159 -3.13911 
2.84172 -2.48638 -0.71941 
-1.20931 2.83396 1.959 
0.592494 -0.303165 -0.272365 
2.04073 2.18037 0.512017 
0.276305 -0.614817 -3.25389 
0.0883318 -2.25543 -0.559792 
-1.21404 -3.08325 3.73504 
-3.60563 1.27764 0.718311 
-1.10591 -2.05596 0.517377 
-0.738507 -0.220896 -1.64857 
3.35783 -1.27614 3.25838 
1.1024 -1.83593 3.53468 
-1.98084 1.89911 3.62301 
-2.75916 3.1348 -1.19665 
1.96548 -1.35549 -2.30256 
1.74458 -3.00406 1.60516 
3.48268 -1.16959 0.866649 
-1.84996 -3.56842 1.22703 
-3.68589 -0.0337387 -2.91513 
-1.78678 3.58927 -1.81273 
-3.53456 -2.6984 3.00323 
-0.394102 -3.3958 2.20955 
-2.10814 0.432949 -0.0631871 
-1.43493 -2.31267 -2.61477 
2.49665 -1.08563 -3.18859 
2.46291 3.49924 2.46145 
-1.44782 1.68651 -1.22444 
-2.94957 -2.10706 -3.01122 
1.85204 0.896175 -2.18057 
-3.14892 1.14025 1.78487 
0.955283 3.3498 -3.10518 
-1.57387 -0.19607 -3.49928 
2.96078 1.43739 -1.10604 
0.646528 2.67441 -3.64649 
0.575894 -0.732515 1.30817 
-3.57431 3.66231 -1.84075 
3.72963 0.163031 -0.88547 
1.10699 -0.43297 2.36696 
0.770177 1.97273 3.01348 
-1.74721 1.42886 1.55295 
-2.47972 2.73702 0.988598 
1.34562 0.0108001 -2.00981 
-3.55432 -2.44854 1.71981 
1.19754 1.89736 -1.71347 
-3.08895 -2.1957 0.320266 
-1.54919 3.18474 -0.140164 
-0.120333 -2.7623 0.630013 
3.52376 -2.21903 -2.41433 
1.07522 -0.499215 -1.06872 
2.52643 -2.80903 2.87696 
2.2281 3.29776 3.44913 
0.838869 -2.17366 -2.21457 
-1.87937 1.84329 -2.67785 
1.58685 2.92096 -2.15241 
3.63746 3.28114 0.0756887 
0.588358 2.90849 0.559137 
2.01162 -1.92277 3.38093 
-0.162039 3.36266 -3.07099 
-2.90674 1.9832 -3.61228 
1.81351 0.380575 2.00835 
0.10687 1.7027 0.833336 
1.09259 -1.85724 -0.530406 
3.5995 -3.27262 -3.43086 
-2.21555 3.55567 2.97592 
3.66408 -3.63942 0.967582 
0.128614 3.57515 1.06191 
1.18281 -1.65487 2.1251 
0.420758 -2.26352 2.20592 
-3.50409 -1.2016 0.072702 
-0.45935 2.87566 0.201316 
0.902686 -1.24709 -1.59117 
-0.0447202 2.57389 2.55474 
-3.41454 -2.50021 -1.72982 
-0.538873 -2.2989 2.26609 
2.67726 2.98964 -1.62665 
2.31655 1.83076 2.2382 
1.60796 0.396545 3.62908 
-2.40374 1.18163 -1.19366 
-0.506616 -0.707282 0.395618 
-2.01582 -0.486253 3.24927 
3.11473 1.87838 -2.19055 
-1.74906 -1.70879 3.61571 
-0.567437 -2.90244 -2.27633 
-1.27472 -2.50682 2.81993 
-3.66428 1.20285 -2.39126 
-0.464323 1.59903 -1.07019 
-3.39263 0.834842 -0.444619 
-2.33296 -2.15869 3.09705 
2.34243 0.202164 1.30084 
-2.75851 0.813956 -2.20415 
2.49278 -0.372053 -2.52583 
1.28365 2.92936 1.79089 
3.74509 1.52131 -3.63612 
-2.92007 1.07669 -3.09104 
2.42124 -3.32627 1.01633 
-3.20433 2.15885 -1.7327 
-3.57638 -0.366984 0.72778 
-0.64702 1.42391 3.22056 
-0.108926 1.91639 -2.99579 
-0.641026 -1.25541 -0.50929 
1.95697 -0.482568 -0.178671 
-2.49213 -0.537205 -2.04445 
-3.74754 -1.04649 -2.15337 
-1.13908 2.52974 -2.7944 
-1.62164 2.35107 -1.91412 
-1.87074 -1.42516 -1.32645 
-1.6278 0.52075 2.77882 
-1.95816 -2.8589 1.94812 
-0.474917 -0.306672 3.20844 
1.87615 -2.22079 2.06937 
1.12849 -2.17795 0.447724 
-0.296675 -3.5044 -0.640156 
3.03773 -0.0772179 2.44323 
-3.40994 1.95325 -0.286539 
-0.23867 -1.78167 -2.04672 
2.13762 -0.851938 1.26655 
-0.0657394 -1.86289 0.973966 
-3.70291 -2.45914 -0.804638 
-0.975434 -1.12956 -3.35117 
-1.51064 1.20466 -2.03445 
3.25405 -2.10759 0.55736 
2.52583 -1.1356 -1.5863 
-3.2403 0.571642 3.70303 
-0.419154 0.587875 2.96834 
1.64214 2.35521 -3.70654 
0.54617 1.20141 1.94337 
-1.67546 0.269352 1.87171 
0.762999 0.81035 0.231277 
0.225649 0.208969 -0.919488 
-0.827006 3.12877 2.74372 
-1.28994 0.712457 -3.49544 
1.54116 -3.60058 -0.777603 
3.21757 -0.452398 -3.4296 
2.0974 -2.37465 -1.37053 
-2.37716 1.56681 2.4693 
-1.05567 -2.89278 1.67914 
-1.99675 -0.875641 -3.03553 
1.91332 -0.457139 -1.4147 
-2.20935 -3.00259 -2.59467 
2.2376 1.62943 -2.81468 
3.15535 -2.83424 -1.60946 
-2.68466 3.25948 -3.47843 
-1.05762 -2.15612 -0.742564 
3.5034 -0.335415 -0.1435 
1.43493 0.782245 -1.20112 
1.29264 -3.17406 0.338494 
3.51012 2.41795 1.25708 
1.60558 -2.5249 -2.85097 
-2.17607 -1.285 -0.477912 
-0.181815 2.64528 1.09733 
3.30023 2.25276 3.35643 
0.393102 2.86944 -2.20485 
-3.41679 -0.459441 -3.69246 
-3.24331 2.20483 0.629405 
1.63252 1.3721 3.18065 
-0.883025 -1.34309 3.17415 
3.59671 2.92041 2.15873 
2.35779 -2.63137 -3.57014 
-1.81939 -1.55092 1.29635 
0.912172 -3.11284 1.94932 
-0.573691 0.534967 1.12029 
-3.56504 -0.272252 2.23861 
-0.164686 2.15857 -0.407306 
-1.03671 -0.778384 2.44632 
0.955376 3.58693 3.50073 
-2.2967 2.61452 2.76112 
-0.809759 -3.52723 -1.52892 
2.93759 -0.823604 -0.749915 
2.59028 -0.247601 3.4072 
-0.125637 -3.21168 3.41385 
-2.49619 2.63665 -2.39742 
-2.38423 -2.80763 0.842785 
-2.70786 0.330073 1.92373 
-2.72044 -2.66754 -0.46101 
0.325553 0.0910592 0.583724 
1.17703 2.87461 -0.395276 
-1.55904 -3.02521 0.241478 
2.15501 1.85738 -1.44917 
3.2633 2.00976 0.466258 
-0.985529 1.56994 -2.68005 
3.33132 2.82882 -0.656455 
-0.787386 2.04549 1.44464 
-1.70503 0.047902 0.708878 
-2.21125 3.21874 1.97204 
2.74041 -3.64291 -2.75236 
1.40818 1.9293 -0.343003 
2.75982 3.33911 1.09643 
-1.14915 2.30893 -0.488079 
2.58657 -1.03836 2.49549 
-0.881412 1.50038 2.2 
-0.517498 0.379393 -3.02362 
-0.0193051 -1.16225 -1.40522 
1.18927 -0.106935 0.361318 
3.0426 -1.99129 -3.22236 
-2.80226 1.68536 -2.42223 
-2.79434 -3.50361 1.27053 
-2.0508 -1.97784 0.193095 
3.37024 -1.66062 -0.480023 
2.91974 0.858109 1.87413 
3.17756 -2.09051 2.86515 
-1.34238 1.24707 0.554393 
-2.95179 -3.34333 -3.68196 
1.41698 -1.17228 0.38749 
-0.436853 2.36256 3.6567 
2.55138 -1.50027 0.356278 
0.607313 3.53313 1.96569 
2.19135 0.598313 -0.377965 
-1.98522 -0.635399 1.71754 
-1.37213 -0.223609 -0.575509 
0.312945 -3.25257 -2.74647 
3.1999 -0.0724286 -1.95111 
0.1543 -1.04515 3.40177 
2.01024 -3.03594 -2.10997 
-2.85414 -0.00677819 -0.398822 
2.7789 -1.97572 2.03924 
1.34152 3.70536 -1.7615 
3.1498 -2.85102 1.4036 
1.7421 0.903111 -3.08265 
1.34116 -2.74666 3.42586 
-1.36283 3.4611 -2.88062 
2.13021 -1.27696 -0.702209 
0.589777 0.721303 -1.89569 
-1.3753 3.12073 1.09508 
-1.40733 -1.03316 -0.0579269 
-2.90595 -3.10787 2.45189 
1.1732 0.608964 1.02982 
3.19645 0.860736 -0.298616 
-0.57152 2.83621 -2.11246 
-0.772288 -2.1742 3.65212 
0.838853 3.0179 2.75567 
2.04607 2.7544 1.31282 
0.809113 2.22539 1.38848 
2.80872 0.826435 0.58251 
1.02712 -0.161833 -3.08294 
0.443109 1.85976 -2.23591 
-1.23518 1.02869 -0.557645 
0.459334 -2.96545 -0.100544 
-0.833166 -0.496558 -2.73495 
2.3839 -2.46482 0.0764491 
2.91186 0.996193 -2.0279 
2.51082 0.474948 -1.21123 
0.62356 3.46453 -1.06256 
1.89452 1.29681 0.218841 
-1.38671 -1.09037 -2.04989 
-0.258175 -3.72528 0.279239 
-1.74146 -3.0218 -0.693182 
0.0533803 -1.11794 2.20923 
1.76478 -2.01602 1.09644 
-2.51939 3.73676 -0.235863 
0.150223 -0.374402 -2.13431 
-1.10322 -2.43767 -1.60695 
-2.2945 1.00005 3.19593 
1.54549 -3.69985 2.58162 
0.991246 -2.64627 -1.25148 
0.0342961 3.26058 3.16608 
-2.04564 0.23366 -1.97009 
1.27837 -3.30599 -3.26544 
-2.37441 1.85608 0.876686 
-3.42949 -0.804045 2.94559 
-3.2376 0.427113 2.74861 
0.428964 -0.213607 3.16835 
1.00307 -2.76525 1.103 
-3.33773 2.25806 3.13566 
0.142093 0.624749 3.69198 
-3.37706 -3.5368 -2.75004 
2.68925 -3.43118 3.71108 
-3.53486 -3.62729 1.85095 
-2.00516 -1.50252 2.35254 
2.52516 1.46954 -3.66513 
0.46443 -1.00403 0.463125 
0.459896 1.19766 -1.09038 
-2.89133 -1.47729 0.856457 
1.77713 2.95671 -1.18583 
-2.24705 2.18271 -1.2867 
-0.880443 -1.63918 1.53045 
-3.61094 1.26476 -1.20114 
3.0285 -0.476049 1.19064 
0.60514 -1.78678 -3.07523 
0.160698 -1.91929 3.09783 
1.40969 2.02982 -2.75952 
-2.76093 -3.41102 -1.02965 
2.47679 2.02288 -0.310275 
0.931296 -1.22012 2.90891 
-0.672201 -3.37165 1.02819 
-3.40388 -1.82907 3.41107 
-1.56003 2.3065 0.493274 
0.685413 -3.22743 2.99535 
-3.4588 -1.35491 -3.24176 
3.07841 -3.34645 -0.0123429 
-1.15237 -3.43748 2.87414 
3.47915 2.5211 -1.63057 
2.74673 1.64767 1.43067 
0.327417 1.50139 -3.67987 
0.596125 0.29354 1.66872 
-2.2178 0.507563 -2.96172 
1.54096 -2.74938 -0.446897 
3.40255 -1.37154 2.32282 
3.74218 -0.818764 -1.23422 
-0.574294 1.73277 0.259493 
-2.04585 2.27974 1.92682 
0.428281 -1.20633 -0.560576 
2.12191 0.502339 2.8792 
3.18122 -1.92833 -1.44833 
2.53968 2.56967 -3.63813 
-3.45766 -2.79656 0.888921 
-3.02891 -0.698223 1.65813 
0.61983 -2.74495 -3.49666 
1.88312 1.37716 1.14426 
2.02804 3.65218 1.62993 
-2.5582 -2.20209 1.64123 
2.04256 0.0114038 -3.194 
1.99287 3.58037 -3.15527 
-2.17696 -3.00731 3.32693 
2.76035 2.69482 1.94791 
