-2.06525 1.56929 -0.395691 
2.91778 0.769129 -3.22937 
1.29098 1.8594 2.0706 
3.47502 3.34631 -3.43018 
3.61083 0.440314 1.20397 
-0.322928 0.569483 -0.0183337 
-1.63469 2.66514 3.66281 
-3.28722 -3.2255 0.0457078 
0.827955 0.78394 2.71785 
3.20104 0.931789 2.9594 
-2.96269 0.430012 0.606896 
-2.28198 -2.59707 -1.55205 
-0.0207547 -0.612029 1.40148 
1.97485 2.7051 2.41266 
2.41803 -3.57718 -1.08696 
3.73722 3.66508 3.02988 
-0.546857 0.141041 2.07745 
-3.39761 2.61304 -2.78708 
-3.19115 -1.47192 -1.97745 
-2.44903 -0.564189 0.517033 
2.62625 -2.05741 -2.41007 
1.8101 -0.790889 3.41485 
-3.06154 2.25546 1.71828 
0.749449 0.940812 -2.86484 
-2.63448 -1.20922 3.65168 
-2.53029 -0.313268 2.56512 
0.082176 -3.08225 -1.66829 
-1.25874 2.05695 2.7384 
-2.42109 2.6216 -0.0733514 
1.60365 3.35304 0.637879 
-3.25232 -1.59937 2.2794 
-1.63848 3.18702 -1.13361 
2.30339 3.20211 -0.22637 
1.3913 -1.02517 -3.03909 
-1.99562 0.336579 -1.2051 
-0.499547 2.86338 -0.967557 
2.27276 2.7984 -2.4314 
-0.560039 0.987757 -1.72262 
3.61236 1.70787 2.28152 
-3.03169 -0.107037 -1.52243 
-2.9896 -1.72862 -0.922012 
-0.298049 -2.43456 -3.01725 
2.86055 -2.61538 -0.662555 
-1.04225 2.73234 1.8229 
0.48869 -0.194922 -0.289034 
1.19501 1.94322 0.711721 
-0.141843 -0.426533 -3.35054 
0.0488389 -2.18716 -1.00088 
-1.25451 -3.03733 -3.35906 
-3.66714 1.2467 0.459368 
-0.919934 -1.95717 0.502672 
-1.06152 -0.18131 -1.51687 
2.99018 -1.14676 3.3739 
1.11748 -1.74284 3.65141 
-1.95014 1.56538 3.46228 
-3.14134 3.02676 -0.860102 
1.70998 -1.43113 -2.04165 
1.83615 -2.94664 1.61587 
3.56429 -1.69787 1.3771 
-1.86173 -3.45409 1.14385 
-3.62874 0.182037 -2.62327 
-1.7826 -3.54093 -1.92327 
-3.65616 -2.79054 3.24784 
-0.267232 -3.03207 2.2386 
-2.11145 0.44064 -0.101647 
-1.30653 -2.21072 -2.61369 
2.41765 -1.31225 -3.19297 
2.79693 3.50934 2.50701 
-1.42982 1.70297 -1.32818 
-2.97374 -2.41963 -3.45812 
1.51409 1.2912 -2.11592 
-3.18958 1.22375 1.48043 
1.10964 3.13353 -2.84947 
-1.19313 -0.178636 -3.57241 
3.2316 1.90682 -1.12265 
0.54606 2.61126 -3.68903 
1.15549 -0.315057 1.332 
3.57968 -3.66639 -1.08452 
3.57912 0.282349 -0.93907 
1.49013 -0.249621 2.41143 
0.485922 1.80042 2.99822 
-2.01631 1.24561 1.53514 
-2.38464 2.90254 1.00648 
1.51772 0.162232 -2.19272 
-3.70521 -2.5688 2.15696 
0.570232 2.38926 -1.14576 
-3.26991 -2.15605 0.0902814 
-1.10881 3.51244 -0.224365 
-0.0655794 -2.69604 0.444315 
3.71778 -2.27353 -2.50024 
0.765919 -0.468098 -1.33835 
2.33665 -2.93138 2.62881 
2.11163 3.31024 3.33901 
0.651108 -2.48833 -2.41491 
-1.80269 1.78755 -2.92821 
1.28153 2.39645 -1.99944 
-3.43028 3.21618 0.206777 
0.597361 2.88314 0.495534 
2.1583 -1.9486 3.42439 
-0.342772 3.2791 -3.26033 
-2.69388 2.16016 -3.49669 
1.58834 0.763921 1.9557 
0.247642 1.31834 0.775564 
1.312 -1.7002 -0.81235 
3.54616 -3.0741 -3.21865 
-2.04467 3.54318 3.01588 
3.49627 -3.52079 0.881104 
0.572472 -3.62206 1.00786 
0.965161 -1.34721 1.55796 
0.452011 -2.13827 2.07268 
-3.2353 -1.09176 -0.084246 
-0.465228 2.69092 0.211725 
0.66227 -1.54544 -1.73529 
-0.158429 2.43786 2.39922 
-3.32868 -3.07569 -1.85911 
-0.60912 -1.96478 2.28086 
2.84843 2.94515 -1.49663 
2.39535 1.65895 2.37009 
1.34523 0.27222 3.50788 
-2.49638 1.30633 -1.37637 
-0.426164 -0.536451 0.330533 
-1.77642 -0.732872 3.227 
3.27456 2.16675 -2.21363 
-1.74582 -1.90235 -3.7217 
-0.770478 -3.21992 -2.38549 
-1.55528 -2.25 2.71932 
-3.59667 1.27687 -2.65453 
-0.523438 2.12799 -1.81903 
-3.07363 1.00039 -0.457641 
-2.62275 -2.16184 2.96269 
2.14185 0.168284 1.20881 
-2.70684 0.665244 -2.24244 
2.32071 -0.58913 -2.36546 
1.16024 3.15954 1.67431 
3.45273 1.88029 -3.42147 
-2.61788 1.08452 -3.2512 
2.41405 -3.31422 0.705062 
-3.31297 2.17097 -1.53691 
-3.50978 -0.52595 0.788466 
-0.872861 1.36768 3.60681 
0.0593843 2.39365 -2.7363 
-0.852303 -1.25354 -0.542223 
2.44159 -0.478883 0.364342 
-2.84429 -0.598529 -2.56798 
3.30302 -1.19793 -2.3821 
-0.993507 2.47942 -2.98128 
-1.60271 2.51946 -2.06209 
-1.91332 -1.58611 -1.15698 
-1.31832 0.505275 2.99544 
-1.82435 -3.19017 2.20944 
-0.504988 -0.253476 3.1013 
1.47118 -2.26385 2.49474 
0.858891 -2.04325 0.146851 
-0.562639 -2.98776 -0.530099 
2.57246 -0.248914 2.2415 
-3.39449 2.04453 -0.419373 
-0.301179 -1.98542 -2.03847 
2.04277 -0.952093 1.38336 
0.0270626 -1.74133 1.08781 
-3.55039 -2.66491 -0.8532 
-0.735361 -1.40089 -3.21184 
-1.63925 0.987227 -2.13304 
3.25849 -2.54804 0.393237 
2.66855 -1.18257 -1.5067 
-3.56724 0.72624 -3.69751 
-0.26103 0.898492 2.82366 
1.61281 2.41652 3.66221 
0.176489 1.39325 1.94066 
-1.62253 0.28009 1.93032 
0.833124 0.866384 -0.0931094 
-0.15145 0.1864 -1.06448 
-0.997709 3.13939 2.85209 
-1.52948 0.784816 -3.22742 
1.34493 3.68285 -0.460985 
3.13052 -0.447958 -3.16202 
2.1925 -2.18975 -1.40963 
-2.56917 1.49375 2.46321 
-1.23279 -2.51677 1.48855 
-1.78887 -0.978954 -3.05435 
1.87069 -0.477252 -1.29318 
-2.28014 -3.21938 -2.92534 
2.41697 1.7616 -2.80861 
3.06691 -2.90851 -1.73813 
-2.43471 3.16787 -3.17626 
-1.40321 -2.2276 -0.452574 
3.4047 0.141481 0.136325 
1.31807 0.510118 -1.06511 
1.37721 -3.07298 0.393801 
-3.70499 2.99965 1.26871 
1.56657 -2.12297 -2.91157 
-2.16078 -0.663856 -0.557078 
-0.214395 3.09117 1.20056 
2.94664 2.45218 2.95666 
0.381286 3.1019 -1.97138 
-3.3258 -0.359196 -3.54657 
-3.24681 2.23369 0.647894 
1.53964 1.4872 3.11069 
-0.862122 -1.31108 3.17222 
-3.65569 2.81225 2.40183 
2.38153 -2.75563 -3.2464 
-1.88216 -1.73041 1.07758 
0.839848 -3.17163 1.96758 
-0.579943 0.672029 1.10381 
3.71359 -0.199685 2.06491 
0.440952 1.9424 -0.128395 
-1.182 -0.714609 2.30971 
1.07795 3.57767 3.63477 
-2.51026 2.50239 2.91462 
-0.789588 -3.64956 -1.34723 
2.83324 -0.474048 -0.676986 
2.84891 -0.0549124 3.35489 
-0.234844 -3.25505 -3.74652 
-2.562 3.08837 -1.99369 
-2.37992 -2.62621 0.62622 
-2.69679 0.267253 1.64488 
-2.46371 -2.61499 -0.462904 
0.365473 0.177969 0.727134 
1.3652 2.56004 -0.229573 
-1.31272 -3.016 0.306599 
2.27243 1.97141 -1.6647 
3.16396 2.1102 0.249952 
-0.720742 1.46687 -2.72613 
3.3148 2.8733 -0.521169 
-0.580319 1.95987 1.15866 
-1.41815 0.0222391 0.725185 
-2.65721 3.28868 2.03729 
3.09072 3.71311 -2.41439 
1.39206 1.65827 -0.957134 
2.81323 3.0953 0.745974 
-1.35025 2.3963 -0.41327 
2.1 -1.28668 2.4751 
-0.966068 1.23342 2.00729 
-0.244122 0.470632 -2.71653 
-0.251088 -0.974439 -1.42173 
1.40761 -0.0818214 0.297596 
3.1873 -2.05206 -3.47183 
-2.6883 1.83771 -2.34349 
-2.93179 -3.64831 1.03084 
-2.26856 -1.6409 0.00390291 
3.39376 -1.67944 -0.408889 
2.81311 0.779049 1.87841 
3.06256 -2.12783 2.85686 
-1.45358 1.08686 0.510332 
-2.98974 -3.53201 3.74433 
1.64483 -1.2454 0.332025 
-0.491631 2.39579 3.51304 
2.77188 -1.48204 0.642084 
0.208433 3.45676 2.13419 
2.26419 0.395247 -0.246068 
-1.87288 -0.682988 1.44414 
-1.17232 -0.155241 -0.392922 
0.282461 -3.49307 -2.72348 
3.20894 -0.225026 -1.8329 
0.187867 -1.17955 3.49003 
2.04843 -3.00373 -2.16589 
-3.07088 -0.0792228 -0.366403 
2.59795 -2.07163 1.85023 
1.10241 -3.57961 -1.91386 
2.92653 -3.12681 1.71879 
1.75538 1.04553 -3.31685 
1.59363 -2.93895 3.45504 
-1.43231 3.48474 -2.89115 
2.3376 -1.47558 -0.498843 
0.515056 0.525555 -1.87391 
-1.26955 3.18904 0.810136 
-1.44753 -0.998638 0.359494 
-2.85019 -3.21862 2.62549 
1.23755 0.816129 0.935342 
3.10743 1.12877 -0.377627 
-0.679423 3.16362 -2.17171 
-0.765787 -2.31901 3.49759 
0.927848 2.81498 2.75526 
1.95854 2.50745 1.28652 
0.480665 2.31365 1.46203 
2.76806 0.880924 0.64214 
0.871597 -0.0953326 -3.0807 
0.444086 1.63247 -2.0448 
-1.18105 0.906729 -0.633193 
0.599337 -2.97305 -0.434142 
-0.878922 -0.450818 -2.56108 
2.19503 -2.30633 0.221987 
2.94992 1.08775 -2.09706 
2.48119 0.457943 -1.31716 
0.327408 3.58931 -0.961429 
1.86815 1.34886 0.10304 
-1.18716 -1.30575 -1.95714 
-0.0714555 3.7307 0.117808 
-1.65524 -3.24159 -0.81372 
-0.066192 -1.02634 2.40653 
1.75752 -1.97541 1.14699 
-2.24394 -3.69162 0.0756838 
0.225309 -0.528254 -2.30467 
-1.09223 -2.56279 -1.50293 
-2.46891 0.603973 3.23985 
1.55926 -3.72882 2.53967 
1.06196 -2.57524 -1.42317 
0.0329021 3.33806 3.19081 
-1.8872 -0.0904509 -2.29141 
1.35174 -3.25583 -2.97038 
-2.52982 1.4299 0.566814 
-3.49922 -0.730502 2.95151 
-3.32204 0.699883 2.50158 
0.55418 -0.264064 2.95791 
0.811706 -2.51112 1.12448 
-3.31938 1.63461 3.24138 
0.246714 0.518009 3.71332 
-3.25626 3.73109 -2.702 
2.84949 -3.37343 3.4831 
-3.62769 -3.64688 1.94104 
-2.13536 -1.36877 2.29122 
2.52315 1.58576 3.55218 
0.617428 -0.933087 0.54997 
0.307578 1.23081 -1.0044 
-2.93533 -1.57526 0.924124 
1.78667 2.92366 -1.1884 
-2.31054 2.35194 -1.15513 
-0.923784 -1.28096 1.4006 
-3.55651 1.0908 -1.5643 
3.04306 -0.568557 1.28977 
0.37847 -1.51918 -2.92526 
0.222437 -2.17474 3.10369 
1.10912 1.95877 -2.97717 
-2.7106 -3.5098 -1.04466 
2.35001 2.14418 -0.54324 
0.990437 -1.26234 2.67141 
-0.62166 -3.39476 1.11544 
-3.54842 -1.72371 3.33635 
-1.62606 2.14986 0.6597 
0.581615 -3.20195 2.99841 
-3.44248 -1.39827 -3.12318 
3.1166 -3.56524 -0.123469 
-1.08307 -3.26442 3.02895 
-3.64776 3.14573 -1.8619 
3.22582 1.67803 1.27429 
0.122617 1.58916 -3.47594 
0.479064 0.361379 1.79666 
-2.28969 -0.0218327 -3.35728 
1.73797 -2.7991 -0.615237 
3.20001 -1.17781 2.27438 
-3.73375 -0.895069 -1.12631 
-0.625259 1.62782 0.0529503 
-2.00988 2.29529 1.90983 
0.318394 -1.25137 -0.494724 
2.15805 0.624242 2.85613 
3.43548 -1.92794 -1.48044 
2.63791 2.62875 -3.46674 
-3.37684 -2.63165 1.1031 
-2.9352 -0.790359 1.66416 
0.650255 -2.65732 -3.50766 
2.09739 1.44031 1.28218 
2.20941 3.52018 1.59783 
-2.52158 -2.36073 1.81054 
2.07911 -0.0564482 -3.27128 
2.26004 3.65151 -3.14187 
-2.08826 -2.94944 3.45344 
2.91673 2.59469 1.83 
